# .PCD v0.7 - Point Cloud Data file format
VERSION 0.7
FIELDS x y z intensity
SIZE 4 4 4 4
TYPE F F F F
COUNT 1 1 1 1
WIDTH 1310
HEIGHT 1
VIEWPOINT 0 0 0 1 0 0 0
POINTS 1310
DATA ascii
-2.7844536 -3.9587636 2.1532729 43
-2.2305768 -4.8244314 2.1149876 34.666668
-1.7465019 -3.4318085 -0.55260152 0
-2.5472746 -3.1035657 -0.55773342 1
-1.3880835 -4.4148684 -0.55516779 4
-2.3463902 -3.8930054 -0.56079918 1
-2.2470722 -4.2118616 -0.56230688 11
-0.6553936 1.5867015 -0.54086816 12
-0.17593956 1.2078336 -0.57370245 1
-0.86934996 0.81106293 -0.5871374 9
-1.3096571 0.74326706 -0.44041273 0
-0.86581516 0.4306947 -0.57323319 0
-1.40832 0.63787913 -0.44741952 0
-1.0058312 0.25210202 -0.51951444 0
-3.8408632 0.93619061 -0.43072948 21
-2.6611938 -0.43282008 -0.5395726 1
-4.4081311 -0.7702409 -0.43101493 2
-4.4506707 -0.77011466 -0.42874414 2
-0.92067003 -2.9385781 -0.54026175 1
-3.3470201 -2.743403 -0.38024417 1
-3.4516959 -2.5861387 -0.38461182 0
-0.65004253 -4.0589566 -0.378786 27.333334
-3.0547915 -3.6481843 -0.44641486 19
-1.5467262 -4.4631448 -0.34048083 5
-2.7094617 -4.0585594 -0.44731018 34
-2.4020424 -4.318881 -0.41489819 55
-2.4704642 -4.268312 -0.34660006 68.5
-2.5414653 -4.5432549 -0.46561393 52.5
-2.3825965 -5.00664 -0.35610655 22
4.7985888 4.8277378 -0.35830709 19
4.5406723 4.717752 -0.30722344 18
-0.91736078 0.808779 -0.26622915 18.25
-2.068265 1.1375891 -0.34664732 9
-3.6545315 0.80784106 -0.20020735 2
-2.0828161 -0.11976528 -0.3182722 36
-3.0577226 -0.50295031 -0.36209068 1
1.9575477 -2.9520626 -0.21941178 15.571428
-0.65917587 -1.9993324 -0.27203116 0
1.4079118 -3.4893904 -0.20393984 8
-3.9437561 -1.1697888 -0.20876129 2.5
-0.69864655 -2.9134555 -0.2519415 12
-0.35799599 -3.9656596 -0.24999814 15.5
-2.5152559 -4.2611566 -0.16886662 64
4.6770167 4.7781777 -0.20985524 37.5
4.5473328 4.7211514 -0.20645411 46.833332
0.0040054321 2.2783017 -0.10560438 96
-0.75850582 1.6555063 -0.096166849 34.25
3.9008179 -0.66501993 -0.022726208 0
3.9206383 -0.81809849 -0.018658338 0
3.9056804 -0.74230021 -0.020653907 0
-2.9943514 1.3240265 -0.015067252 29
-3.27144 1.2227083 -0.01698513 31
-4.0173888 0.8343823 -0.021191604 30
-2.9941216 -0.58011281 -0.02242228 19
-1.1016173 -4.2978458 -0.12741779 2
-1.2991848 -4.3972855 -0.049350347 16.5
-2.6418476 -3.9176817 0.046544638 38
-1.6932979 -4.5763025 0.044006843 1
-2.5399208 -4.0510798 -0.10541409 62
-2.7848458 -4.0032511 -0.04095332 36
-2.3693008 -4.3368578 -0.11280702 94
-2.458467 -4.8665347 0.045654759 108
4.2122078 4.5453472 -0.034831326 48.166668
0.38066745 2.5887852 0.13702345 77
3.8868527 -0.75543189 0.055692349 0.015151516
-2.6361842 1.3063484 0.02988239 44
-2.2248926 0.7747792 0.13565816 37.5
-2.0414038 0.46101236 0.16605371 26
3.5496631 -2.4012609 0.079861447 20.121952
3.2919865 -2.5324759 0.089896977 48.200001
-1.4981871 -0.4493306 0.14836167 27
-1.6787062 -0.74370581 0.079977348 4.3333335
-1.187006 -1.3780932 0.058374908 3
1.3662586 -3.4904432 0.23343796 12
-3.469038 -1.7027304 0.085168973 30
-1.0509377 -4.2700071 0.20797302 1
-3.1229558 -3.5681581 0.23913841 120
-2.6468153 -4.5119462 0.2523149 118
0.0035533905 2.2567759 0.24875648 90
-0.062585354 2.2130938 0.23374131 110.66666
-2.2738247 1.1162645 0.20306566 14
1.4746888 -3.4400387 0.2811031 17
-0.27691793 -3.9450383 0.43887097 16
-0.58215046 1.9471453 0.41054428 92
4.3122864 4.5913577 0.70309865 79
-2.954915 1.3373445 0.63398701 16.666666
-3.4658322 1.107088 0.6824106 28
4.349062 4.60291 0.75005794 72.333336
-3.6928158 1.0175757 0.88356513 31
-0.6719985 -4.0511532 1.0419047 71
-1.156867 1.7664059 1.0166929 40
-0.98462391 0.76096082 1.065618 2
-2.9797297 1.4326938 1.1186864 31
3.6439028 -2.2794528 1.0670755 48
2.0704539 -3.0592251 1.0695424 28.5
-0.84815979 0.84648013 1.2106712 14
4.4226155 -1.8824749 1.2725922 34.958332
-5.0535321 0.31502867 1.3964711 96
-4.5696073 -0.36935133 1.3132184 54
3.3286052 4.0234637 1.4018935 44
-3.0150957 1.3863274 1.4895958 16
-5.0437942 0.33443701 1.5821992 1
0.76920128 -3.7058449 1.5533378 8
-2.3639951 -4.8330007 1.6149683 51
2.9820676 -2.5666809 1.6841619 17.736841
2.8769438 -2.6361687 1.8090769 150
-5.0549436 0.35124207 1.645067 35
-4.7753167 -0.27381879 1.7533951 83
-4.1353455 -1.57476 1.6851294 119
0.25945902 2.5214391 1.7780373 21
-0.091145277 2.7004561 1.9229934 142
3.0565009 -2.6179516 1.9327211 150
2.3412611 -3.0359926 2.0067205 34
-5.0516191 0.36340988 1.8859422 1
-1.1417789 -4.2908506 2.0407338 27.5
3.7655587 4.6997552 2.0674953 45.5
2.903223 4.3175192 2.0519514 65
2.5620015 4.1671777 2.0060682 66
0.75602078 1.6996442 2.095072 54.5
0.17318225 1.7155045 2.0925918 59.5
1.6259673 0.65393102 2.1016927 48.714287
0.10996866 1.1209873 2.1027935 56.799999
0.88363242 0.52780712 2.0919247 59
1.3396194 0.12971473 2.119442 10
-2.8490648 1.3081487 2.120688 33
0.12299371 -0.1940518 2.1056335 60.5
-1.9053736 0.65712678 2.1185827 37.5
-2.0226746 -0.13188481 2.1235468 35.5
2.1936095 -2.4396372 2.0930228 58.470589
-0.68550205 -1.1569747 2.1257701 1
-2.2831335 -0.53389311 2.1149137 37
-1.7772007 -0.88689625 2.1152494 37
-0.18278837 -2.4609008 2.1024306 51.5
-1.8440511 -3.0838878 -0.56063569 0
-1.6389143 -3.4629939 -0.55299675 0
-1.6380379 -3.6237438 -0.55785275 0
-1.4508998 -4.1859155 -0.56164062 0
-2.0742857 -3.8822136 -0.56234092 0
-2.1591461 -4.1063619 -0.57074916 1
-1.9561269 -4.5557342 -0.55515325 1
-2.2558181 -4.3493505 -0.58082306 1
1.9942687 3.4625599 -0.50709981 68
0.10376096 2.5036552 -0.46652329 71.5
0.27731228 2.2042775 -0.58325911 1
0.061734438 2.2347317 -0.51814228 46
-1.0111439 1.4627237 -0.55080789 21.5
-1.2492316 0.83763838 -0.5472753 4
-1.9913385 1.0147105 -0.5634535 14
-1.2139752 0.3158133 -0.53653646 1
-1.0680687 0.089655101 -0.46651506 0
-3.8817675 0.91191411 -0.49632788 19
-0.70659423 -0.76287848 -0.5846644 0.5
-1.2792485 -1.7809881 -0.53301889 1
-3.3373935 -1.1255952 -0.49137136 0
-4.0414171 -0.99046922 -0.54276294 1.5
-0.58502269 -2.8679671 -0.42330718 3
-0.7644608 -4.085825 -0.37574229 12
-3.0323951 -2.9593325 -0.48196495 3
-2.9805386 -3.3011341 -0.48275408 13
-2.2937825 -4.9087391 -0.46171036 24.666666
4.2627344 4.5979376 -0.35713947 11
1.135231 3.0169122 -0.37353551 64.444443
-2.7042439 0.68497527 -0.22497101 41
-4.0566969 0.79522562 -0.28549245 11
-4.0220556 0.023102999 -0.25889608 23
2.2208257 -3.0872421 -0.20759024 19
-4.5711565 -0.69989294 -0.28813356 43.5
1.3151538 -3.5422542 -0.23854311 8.333333
0.8501606 -3.5834951 -0.2177311 31
-3.1385291 -3.036691 -0.29414287 31
4.7869921 4.8433104 -0.26607198 41
3.9060428 -0.94578606 -0.018376112 0
-2.3072841 1.0409856 -0.17550264 35
2.7287617 -2.8344698 -0.16489382 36
-1.2262204 -2.5726635 -0.15770812 2
0.83227921 -3.6979909 0.0036446517 25.333334
-3.8488247 -1.9100008 -0.013182261 18
-2.5034249 -3.8324211 0.045638949 31.5
-1.4859746 -4.4490299 -0.10576767 22
-2.6583683 -3.9274015 -0.0085179517 38
-2.4574344 -4.8977127 -0.041947514 117
4.6449113 4.7696276 0.0023047021 44.166668
3.2826934 4.0853891 0.021418914 37
-0.071226835 2.2148416 0.0081775496 104.6
3.8452349 -0.66984391 0.035210665 0
3.8751657 -0.83522904 0.025904115 0
3.8889241 -0.94262356 0.037504442 0
3.8129027 -0.90253997 -0.015302078 0.023628691
-2.7981646 1.2877753 0.0036730869 39
3.8765831 -2.2478971 0.029266346 17
1.4427266 -3.4704716 0.14269219 16
1.0356913 -3.6715701 0.12422854 14
-1.0885079 -3.0212164 0.047378279 60
-3.4607351 -2.1938128 0.11392854 43
-2.7034786 -4.4024048 0.19420178 120
-2.5827644 -4.6324577 0.24744774 115
-3.0096037 -1.3858355 0.43003163 39
0.60265279 -3.516082 0.41244659 40.799999
-0.94120193 -2.834291 0.30790636 43
-1.0564163 -3.0114963 0.31708652 51
-0.74414849 1.1565335 0.41114497 14
-2.8557131 1.3730993 0.50305068 19
-4.7522058 -0.16605598 0.54093361 34
-0.20333409 -3.8904326 0.48791632 28
-0.33572221 -3.9612005 0.5227983 21.5
-3.477248 -2.7677593 0.46980789 136
-1.2208035 -4.3471584 0.62218267 6
4.4253078 4.6539316 0.56743896 57.5
1.8372447 -3.2192628 0.69119662 15.75
-3.2082422 -2.1440382 0.73063886 51
-2.388684 -5.0176964 0.7763679 29
-2.9809997 1.3974657 0.87518865 35.5
-1.2024262 0.10530531 0.85552478 2
-3.6137555 1.1109896 0.87595218 24
-4.40909 0.59231544 0.87946188 2
-3.7993534 -1.1038687 0.8738907 54
-1.4995053 -4.3889489 0.96577322 23
-3.1428778 -3.5781989 0.89441168 129
-3.0586789 -3.7391787 0.8959769 129
3.4496062 4.1221304 0.95422649 46
-0.58226705 1.9574807 1.1584678 101
-1.2777274 1.7862313 1.0696075 30
-2.9339659 1.4500654 1.0927062 34
-3.3573091 1.23843 1.053493 18
-4.4146214 0.19121683 1.0349045 29
-4.5679951 0.017008245 1.045312 41
-2.9535773 1.4388707 1.3730588 29
-1.1981137 0.083646119 1.2563781 1
-4.6850338 0.58333421 1.2245946 28
-3.3540666 -1.931098 1.2569329 70
-3.6774733 -2.5059099 1.3379081 128
-0.71791577 -4.0397882 1.2887044 8
-1.2577693 -4.3796487 1.4300649 7
3.5847123 -2.2772422 1.4465332 41.944443
-5.0318155 0.25748217 1.5154506 93
4.0680175 4.4386826 1.5828079 36
-0.72328877 1.9893026 1.6398083 72.333336
-5.04737 0.31481349 1.7688515 109
-3.0857041 -3.640609 1.8020585 127.5
-1.7085965 -4.5399947 1.782449 25
-2.1855361 -4.8518686 1.6849388 35
3.9838116 4.7168293 1.8617402 30
3.8584366 4.3256054 1.7288224 51
-2.9296339 1.4433746 1.9009541 30.5
3.148623 -2.5193017 1.8224132 150
3.1498671 3.2251089 2.0892603 57
1.8008049 3.6555827 2.0907779 57
1.6663017 3.7163413 2.0223906 66
3.228564 1.9810853 2.0780215 60.333332
0.13311839 2.2292359 2.1265488 9
1.5415854 1.1442697 2.0975344 51.5
0.25275254 1.5080307 2.1118591 60
-0.20489097 1.7334301 2.1052952 57.25
1.7712529 0.59907269 2.1002648 47.375
0.52636385 1.0449123 2.0971379 63
-1.3072546 1.3192804 2.0958023 40.5
1.6008348 -0.19139332 2.1093736 17.263159
0.98405933 -0.14259249 2.0989921 66.5
-2.340337 0.94598711 2.1355395 38
-0.90447736 -0.15364385 2.1011949 52
-1.4416339 -0.1302883 2.1086445 37
-2.9645936 0.53869271 2.1323595 31
3.0462785 -2.6805701 2.0183334 150
-1.2784784 -0.61198628 2.1169503 47.5
-1.5225375 -0.62496799 2.1128318 40
-1.8158958 -0.42648709 2.1142297 37
-2.4538095 -0.56049824 2.1324933 40
-3.7574255 0.027948618 2.1527495 1
-4.543519 0.16107881 2.1604729 31.5
-3.750139 -0.41730237 2.1461554 33.5
-4.6389275 -0.071855724 2.1622584 37
-4.6094236 -0.23120266 2.1616843 38
-3.0355027 -1.1602068 2.1455939 31
-4.6156416 -0.47766346 2.156858 52.333332
-1.099951 -2.2714157 2.123909 53
-1.7157514 -1.89992 2.1152468 36
0.5170207 -3.9805989 2.1094582 54
-1.3657653 -2.9675376 2.1190846 41
-0.86281323 -3.5061073 2.11727 48
-3.504081 -2.6024351 2.1641788 52
-3.1687753 -3.4171746 2.1557326 86
-0.97770977 -1.688251 -0.58003682 0
-2.511528 -1.0582533 -0.56905997 0
-0.91957283 -2.4008148 -0.57312578 0
-1.000165 -2.5451241 -0.55964214 0
-1.2452106 -2.4930279 -0.58753741 1
-0.77864456 -2.9206595 -0.56084424 0.5
-1.0410848 -2.6895187 -0.5664525 0
-0.79654217 -3.130425 -0.56646651 0
-3.489327 -1.9280175 -0.58951271 0
-0.95848036 -3.1983156 -0.5643912 0
-0.72497463 -3.5115275 -0.56399709 0
-1.9732547 -3.1991467 -0.55194914 0
-2.1765041 -3.116662 -0.56654537 0
-1.9528604 -3.5101395 -0.55802572 0
-2.1347799 -4.8623142 -0.54397637 2
2.2686415 3.5977926 -0.48102796 74
-0.29235029 1.3323737 -0.57862556 0.5
-0.74938631 1.558623 -0.48688927 30.333334
-0.3871069 1.128199 -0.57975733 0
-0.61729097 0.79827571 -0.59225309 0
-0.95266247 0.42738628 -0.57693571 0
-1.0701694 0.1140095 -0.51395541 0.5
-3.1920605 -0.56057727 -0.56359708 0
-2.6045537 -1.0448583 -0.51554209 0
-2.779871 -1.4136539 -0.3953993 1
-3.76756 -0.95917755 -0.39012203 0
-4.5445409 -0.7649551 -0.42898789 23
-0.6275115 -2.9022121 -0.45316717 15.5
-3.3090796 -2.7910194 -0.3584725 0
-3.1988678 -3.1129675 -0.36106214 30
-1.0257664 -4.2792754 -0.4067007 0
-2.6025 -4.0581608 -0.36454579 57.5
-2.2141042 -4.8835955 -0.42042151 25.666666
4.7054319 4.8085093 -0.37803599 53
4.5742149 4.746778 -0.35132721 22.200001
4.4319081 4.6774364 -0.35017678 24
3.3030875 4.1003757 -0.37115875 51
-0.76638365 1.5943762 -0.35103497 40
-0.64095354 0.93110847 -0.2367373 17
-2.3860507 1.1406242 -0.30772433 27
2.5515976 -2.9260764 -0.19170788 20.571428
1.4206166 -3.2255106 -0.24487574 6.5
-0.97563887 -2.3063993 -0.31789288 0
-3.7705135 -0.95892501 -0.19105734 1
-4.2912955 -0.82123119 -0.22205627 22.5
-1.1381702 -3.2367306 -0.14847574 4
-1.0503893 -4.2710657 -0.20458092 2
-2.8381538 -3.539628 -0.15906601 33
-2.8746543 -3.5892119 -0.24917023 23
-1.470767 -4.4431977 -0.2492591 6
4.7861223 4.8349104 -0.13091499 32.333332
4.6058426 4.7610521 -0.17580485 49.375
0.23601651 2.5403485 -0.12337913 70.833336
3.8217974 -0.69507587 -0.014049174 0
3.8260093 -0.74837792 -0.014238904 0
-2.241344 1.09662 -0.11916322 29
3.9472682 -2.2122011 -0.049631871 11.364583
-3.3496256 1.160252 -0.082875647 33
-2.8338161 0.72284663 -0.13626692 24
-3.7926369 0.92534792 -0.089556932 34
2.9287546 -2.7332239 -0.13783981 37
-3.1320901 0.0050345063 0.018689694 8.5
-3.7994742 0.04525435 -0.097979054 4
2.2895794 -3.0468149 -0.089405105 43.545456
2.163651 -3.0842538 -0.10498574 40.529411
-4.1254306 -1.0066096 -0.07480754 2.5
-0.36609077 -3.9904218 0.032788597 27
-0.56936264 -4.0258975 -0.10629106 27
-1.6196995 -4.5454617 0.044239171 1
-2.6839776 -4.4371462 0.052612737 114
4.5818472 4.7482791 -0.064936057 46.833332
4.3727775 4.6531749 -0.084914356 28.5
3.9218614 4.4103885 -0.048674524 56.625
3.8091111 -0.77175838 0.064474747 0.020408163
-0.76555109 0.87378621 0.094860092 16.857143
-2.3785982 0.97438574 0.19751659 11
3.81252 -2.2718577 0.082498059 15.8
-1.694706 -0.019618213 0.13551807 19.333334
-1.6661658 -0.2223295 0.20948201 10
-1.8633528 -0.077969849 0.035493731 19
-4.3771796 0.62806714 0.047648497 19.5
2.5651159 -2.9038568 0.063437656 59.166668
-0.89867496 -1.5327137 0.17552288 14
-0.8748951 -1.6354697 0.17369455 21
-1.4524007 -1.9669064 0.14625759 5
-4.4411702 -0.58972239 0.068075486 47
1.4979212 -3.4426565 0.087980628 19
-3.5481997 -1.694077 0.080009371 2
-3.4058247 -2.2096391 0.09172409 40
-0.84630775 -4.1563592 0.14250326 4
-1.5138187 -4.4585776 0.20936434 4
-2.7368073 -4.3361821 0.22771753 119.5
4.5999212 4.7464242 0.2330253 55.333332
4.0803785 4.4868574 0.31324759 35
0.22674108 2.5169106 0.18923527 64
-2.7705159 1.3615354 0.39736009 30
-3.0665355 1.2901417 0.40846488 44
-2.205852 0.75083327 0.23318905 23
-1.1369066 -1.0784252 0.22832759 18
-3.2294831 -3.1023622 0.35118887 28
4.588438 4.7384777 0.37644687 20.200001
-0.92520285 0.80289161 0.40917355 15
-3.2887211 1.1417722 0.51906085 23.666666
-4.2846322 -0.43296656 0.54798776 43
-3.915966 -0.83507925 0.58956677 25
1.2661774 -3.5309792 0.45591974 13
4.4797068 4.6732259 0.58027846 43.666668
3.9668374 4.3982563 0.56263089 65.833336
3.4086831 4.1278925 0.56892669 40
-1.2956715 1.7642022 0.72086424 38.5
-3.4799981 1.1813875 0.78700435 32
-3.7092395 1.0591221 0.80828911 28
-4.8127618 -0.19787312 0.65879965 42
-3.6692958 -1.3505578 1.0136129 75
-3.7338314 -2.3921452 1.0262337 127.5
-1.5053368 -4.4587598 0.90546674 3
-3.0884829 -3.6722093 1.0137764 124.5
-2.5488286 -4.7216325 1.0394136 121.83334
4.4339204 4.6420503 0.91876751 2
4.2315001 4.5451002 1.0250441 69
3.6770272 4.2499766 1.0064648 19.5
3.4532704 4.1275253 1.0712221 43
-4.0334363 0.82005811 1.1668776 15
-4.7393394 0.53985775 1.1477113 28
-4.9098773 0.16500401 1.1698756 62
0.31699014 -3.6793427 1.2089869 18
-0.21126819 -3.940938 1.2542914 54
3.9998801 4.4061418 1.1880981 59.5
3.8374195 4.3182321 1.1831877 55.75
3.7209799 4.2597671 1.170303 21
-2.9048328 1.4023901 1.3470292 31
2.0153646 -3.0938635 1.2561455 22
-0.29340744 -4.0054121 1.4234434 1.6666666
1.8484094 3.2092881 1.426582 72
1.0838306 2.8270249 1.4121833 88
-2.9140072 1.4486035 1.4795218 31
4.1356859 4.4670277 1.6774201 15
3.8772852 4.3416162 1.6199412 53
2.537931 -2.7843242 1.7301254 14
-1.1170106 -4.2556047 1.7216527 22.5
3.7882936 4.4721193 1.7929233 22
2.4278479 4.0331116 1.933666 150
2.2345784 3.9146614 1.9326322 150
2.5529442 -2.8399868 1.8587748 150
-2.0029101 -4.675983 1.8971857 28
4.0346632 4.7792401 2.0851643 14
3.4931531 4.5484886 2.0861514 48
0.39174247 2.7885561 2.1154172 47
0.044548035 2.7187114 2.1108725 43.5
-0.97020721 1.704713 2.1050832 40
0.066730022 0.73619533 2.100513 58.333332
-1.13694 1.3049783 2.0985391 45
-1.493207 1.5585505 2.1028259 34
-0.57356691 0.81998312 2.089767 46.5
-1.3965826 0.54419899 2.1029077 42.5
-1.8207994 0.72077501 2.1087008 25
-2.720952 1.1534594 2.132127 39
-3.0672159 1.3423072 2.0761747 32
-1.0155592 0.13439631 2.0949852 54
3.0095668 -2.7135108 2.0348163 150
-1.1506996 -0.67773533 2.1076169 49
2.6251507 -2.6752086 2.0938921 58.674999
-3.5624061 0.017690063 2.1241641 14
-0.0072255135 -1.8412991 2.1049893 50.5
-3.6137376 -0.15141314 2.1317568 2
-4.3606725 0.11171353 2.1677859 23
-3.6727362 -0.58639574 2.1333878 33
-4.1724992 -0.37183875 2.1367359 30
-0.87975788 -2.1581166 2.111028 53
-3.0483356 -1.1085659 2.1331577 29
-4.3124738 -0.53695822 2.1529274 36.5
-0.74447298 -2.3542433 2.1136079 54
-0.83825397 -2.5551629 2.1199279 51
-4.1442418 -1.5231922 2.1361127 88
-0.37357092 -3.4167242 2.1161458 53.666668
-1.2778873 -3.3669267 2.1217811 43
-3.7128623 0.25947917 -0.62013251 1
-0.97638059 -1.3850173 -0.58256131 0
-3.2487504 -1.145237 -0.5782972 1
-0.7453382 -2.8783717 -0.56254774 0
-1.3948019 -2.6015739 -0.57068926 0
-0.88403296 -3.072726 -0.58176255 0
-1.3623817 -2.7984281 -0.56783152 0
-0.74063802 -3.4121583 -0.57144552 0
-1.4092376 -3.0303872 -0.57382673 0
-0.60554671 -3.917762 -0.56783479 0
-1.2550843 -3.5517392 -0.56116629 0
-2.466284 -3.1084015 -0.57372433 0
-2.2684109 -3.7000341 -0.57150042 0
-2.3418767 -3.7439561 -0.54227579 1
-1.2171538 -4.3494992 -0.56881523 1
-2.2099373 -4.3911624 -0.58675456 1
-0.77029634 1.3668249 -0.59066266 1.5
-2.2513835 0.93086004 -0.5506255 1
-1.1514161 0.15043128 -0.5846138 0
-2.2898853 0.78720915 -0.55137306 1
-1.103965 -0.044112206 -0.57341367 0
-1.1439216 -0.33870578 -0.56912714 0
-4.0365839 0.78780782 -0.42038095 11
-3.8799508 0.039949059 -0.40871027 33
-3.4775283 -2.4621906 -0.35365412 14
-3.2637107 -3.1356788 -0.33146632 33.5
-1.3974931 -4.437541 -0.494073 29
-2.4876478 -3.7627845 -0.5097667 0
-1.7352636 -4.5915442 -0.35408279 1
-2.2566655 -4.5867414 -0.4587048 49.333332
-2.3624508 -4.538063 -0.40543678 51.5
-2.4791682 -4.5100446 -0.43781957 39
-2.3194177 -4.9759579 -0.32092351 8
4.8089828 4.849473 -0.40474218 55.799999
4.4606752 4.6854677 -0.39936092 31
4.1984525 4.5624743 -0.3757118 27.75
-0.75585675 1.8429892 -0.2645795 81.25
-3.8350198 0.91450393 -0.36679083 27
-4.2877407 0.062395215 -0.23447332 16
-4.3909531 -0.89139742 -0.21448414 20.333334
0.90363431 -3.5689056 -0.20334704 28
0.80240464 -3.8053408 -0.19231218 4
-0.081522703 -3.8984218 -0.19749297 75.333336
-0.90095496 -4.1823902 -0.24093084 3.25
-3.2739332 -3.1606431 -0.23101981 75
-1.3527567 -4.4316664 -0.12744476 22
4.81318 4.8480101 -0.21063578 31.125
3.8197854 -0.96872061 -0.020094527 0
-0.63949513 0.97172534 -0.077868849 13
-2.0871994 1.1423101 -0.099084936 23.333334
3.7565122 -2.3087869 -0.04507174 13.15
-1.9999301 -0.078133345 -0.089828238 56.666668
-2.638799 -1.6662883 -0.060422312 25
0.81519127 -3.7736552 -0.092321262 22
-0.99621224 -3.0219333 -0.088359684 21
-1.145561 -3.1834691 -0.051908743 17
-3.2722099 -2.749984 -0.061489496 91
-3.2634284 -3.1855605 -0.062234763 84.5
-1.3775103 -4.4302959 -0.057233695 25.666666
-2.5864403 -4.476697 -0.02174427 109.5
-2.4597738 -4.6987195 -0.054032546 70
3.7640123 -0.68986666 0.042009525 0
3.7920573 -0.86106497 0.028391246 0.061561562
3.8031049 -0.96538138 0.039566793 0
3.7277892 -0.92349172 -0.014910298 0.024114931
-0.79570651 1.2693231 0.024511628 16
-4.4212437 0.59761584 0.036573507 27
1.1107082 -3.6205273 0.22967602 14
4.7550426 4.8119841 0.13755535 13
4.4831543 4.6945353 0.18921997 65
3.4692135 4.1729746 0.1754221 47.285713
-1.0176198 1.4799867 0.28432417 63.666668
-2.2757924 0.78661442 0.21570297 24
-3.1310275 0.65119445 0.26885736 18
-3.0763299 0.58757198 0.24423419 39
-0.92988515 -4.1673126 0.32617152 3
-2.6541483 1.3741064 0.44113714 32
2.2194643 -3.0265834 0.5252977 43.666668
-3.8356688 -0.62758636 0.61309677 18
-0.28394866 -3.8734674 0.51208234 20
4.5910864 4.7125635 0.58640158 1
3.0996218 3.9523818 0.64637202 71.75
0.39363885 2.5705791 0.63205218 77
-1.4688513 0.25836384 0.6639691 1
4.2048783 4.5303192 0.85171574 76.5
-3.4395378 1.2135284 0.92613608 31
-4.8614244 0.15374351 0.84748638 33
-1.1165206 -4.2497463 1.0533866 12
4.4372654 4.6043692 1.0052708 2
-2.8802602 1.4767005 1.1518763 29
-2.9534123 1.3439293 1.1942909 8
-1.2292912 0.18411326 1.1480292 1
3.4794137 -2.3749886 1.0284032 43
-1.0724804 -0.16394705 1.0688246 2
2.9685135 -2.6112585 1.0780114 19.777779
-1.4737637 -4.4449291 1.1595864 13.5
-2.8968613 1.466877 1.3371959 29
-1.2604463 0.24323404 1.2495298 1
1.9881384 -3.1108568 1.3916212 16.333334
-4.894268 0.00091052055 1.4299568 85
-3.8803923 -1.2203219 1.2645741 48
0.39638209 -3.560606 1.4012836 0
4.0216355 4.4164114 1.4151994 50.25
3.3606462 4.0498104 1.3710095 36.5
-2.9502242 1.3400092 1.5023919 9
3.1246667 -2.5029407 1.5240176 30.92
-3.4018114 -3.027056 1.4747078 125
4.0103641 4.391057 1.6809508 34.333332
1.2172155 2.8783915 1.601256 67.14286
-4.9967165 0.29888904 1.7295867 45.333332
4.1995511 4.4663153 1.7133301 10
3.2365789 3.9493945 1.7245038 30
1.0103843 2.7591815 1.7745239 9
0.68832588 3.0067885 1.9230059 22
-0.79442906 2.4790354 1.9757891 37
-1.0141251 2.2140946 1.9052005 33
-1.1950066 1.7817426 1.7915095 5
-0.90150714 0.84156322 1.8025815 1
-5.0437241 0.2980535 1.9463873 100
-4.913393 0.012091875 1.9190915 86
-4.9740114 0.15296543 1.9382299 89
-4.8267746 -0.15879327 1.8896292 86
-1.4187257 -4.4396067 2.0642664 28.5
4.1699653 4.9342108 1.9043678 3
3.5669358 4.6711321 1.9960796 48
2.8689294 4.1639328 2.0868721 52
2.0286224 3.6536005 2.0919046 61.5
0.32465649 2.8725185 2.1132998 53.333332
-1.233043 1.8280191 2.111295 43
-1.7091501 1.9143381 2.1172209 42
0.23089576 0.031411529 2.1107974 55
0.0059876442 -0.071409822 2.103385 56.42857
-2.6563232 1.1877117 2.1223981 30.666666
-0.094035149 -0.2485714 2.109329 54.5
-0.32216573 -0.17115086 2.1057467 50.25
-1.497709 0.14897704 2.1220393 43
0.9714129 -1.2338936 2.0942173 48.166668
-0.39417005 -0.54794598 2.1151595 50.25
-1.5146191 -0.022364259 2.1214778 43.5
2.2731369 -2.7860355 2.0932958 58.541668
1.9621382 -3.0051305 2.1059384 54.333332
-4.9642401 0.32576883 2.1733913 42
1.3708813 -2.8929353 2.0851648 68.666664
-1.9502461 -1.3317511 2.1327393 39
-2.3795793 -1.3891184 2.131186 40
-1.5392764 -2.8654246 2.1317458 46
-2.5419753 -2.9597399 2.133601 42
-2.7258313 -2.6648765 2.1402314 42
-0.30083776 -4.2294273 2.1223881 58
-0.98930955 -3.8634634 2.1273906 46
-2.319061 -3.5478804 2.1395643 39
-1.8940656 -4.0332003 2.132417 37.799999
-1.4996011 -4.4816141 2.0930288 28.5
-1.8867004 -4.2037802 2.1361377 35
-1.7993369 0.75117993 -0.58533907 1
-1.857666 0.62264597 -0.58598739 2
-0.97745228 -2.4011128 -0.57746136 0
-0.83679247 -2.8528795 -0.56438434 0
-0.84744644 -3.1213887 -0.56949961 0
-2.2953682 -3.3240921 -0.55926436 0
-2.2066503 -3.4241996 -0.56667358 0
-2.3254151 -3.5058174 -0.56142396 0
-2.1269646 -3.8951664 -0.57276767 0
-1.6678653 -4.5130167 -0.55628812 0
-0.22990441 1.7620971 -0.59459722 1.5
-0.44483709 1.163589 -0.58766758 0
-0.6441164 0.64151907 -0.58746254 0
-1.0696292 0.7828908 -0.51750833 1
-2.455266 0.8892808 -0.42418662 39
-2.3725243 0.6991322 -0.56630588 0
-3.678751 0.3049618 -0.51566786 6
-2.9699287 -0.21519548 -0.46436375 5
1.1610951 -3.4568601 -0.35426205 27
-4.0951438 -0.68302637 -0.4958801 1
-0.51069069 -4.0086508 -0.35003644 28
-0.95110226 -4.2090759 -0.37414786 3
-2.6468124 -4.3180037 -0.398956 72.25
4.94699 4.9184179 -0.37437746 16
4.7557049 4.8210773 -0.330226 8
4.4712243 4.6943178 -0.45384291 59
-2.1517363 1.1466241 -0.33859771 24
-2.4045305 1.2263162 -0.22935832 24
-2.4511218 0.90345573 -0.2232054 45.833332
-2.8247299 0.6035279 -0.19768381 8
2.6805642 -2.857255 -0.17870808 26
-3.7222686 0.25587761 -0.23516652 30.666666
-3.880024 0.033520162 -0.1898943 12
-0.63276291 -2.0619459 -0.27935091 0.5
-2.530561 -1.615371 -0.15208866 19
-3.7516956 -2.0176303 -0.21315177 23.5
-0.51786661 -4.0053205 -0.3030048 31
-3.1059704 -3.0475867 -0.18607998 37.5
-3.2201939 -3.1090872 -0.20899682 30.333334
-2.6068773 -4.3138194 -0.20383261 79.5
-2.5029411 -4.6960444 -0.1068754 51
4.9319124 4.9480076 -0.20861205 0
4.7068624 4.8168163 -0.24369206 84
3.7454262 -0.69851208 -0.016452277 0
3.7419395 -0.77674204 -0.015016172 0
-3.0425773 0.081767201 -0.077280082 2
-2.4158378 -1.4004878 -0.12817316 35
-2.8099227 -1.1108106 0.0006642621 10.75
-4.7775455 -0.10341734 0.048389569 34
-2.4839053 -1.5148641 -0.13843375 24.5
-4.359695 -0.69861686 0.059929259 43
-4.7636571 -0.3136158 0.050226867 33
-2.5710907 -1.64302 -0.13932095 21
-3.9714756 -0.93096966 0.047617987 3
-4.2171073 -0.85622478 -0.03668984 36.5
-1.3296824 -4.4351645 -0.007365657 22
-2.2897639 -4.9727602 -0.095938079 14
4.8015747 4.8377628 -0.01080115 20
4.7480011 4.820755 0.044948228 30
4.5907493 4.751111 0.03312993 74.625
3.4831097 4.1871691 0.035465904 36.299999
3.0653081 3.9690888 0.046580888 61
3.7247508 -0.79155266 0.065337606 0.0175
-2.035727 0.19438267 0.035861649 0
-0.58325672 -4.0268154 0.21403816 31
4.641695 4.7646751 0.19376023 74
3.7789977 4.3258591 0.21017255 43.25
-1.222971 1.7690754 0.34822407 43
-0.85856724 1.3114288 0.32030669 17
-2.1666684 1.1455383 0.22170269 9
-2.8689799 1.3061783 0.3549583 37.5
-1.4257197 0.1819334 0.35448682 13
-2.7765374 -0.14255679 0.43656203 60
1.5463984 -3.3959305 0.30349249 21
-0.8322053 -4.1506863 0.35312137 4
-3.1540732 -3.0667078 0.29025912 41
-3.3984141 -2.789834 0.29561168 135
-1.700707 -4.5879197 0.41932803 1
4.2393613 4.5745659 0.41921714 76
-2.5255961 1.3190787 0.43662626 31
-3.2283649 1.2049177 0.52925175 19.5
-3.1190758 0.96516478 0.56113279 28
-3.8399944 -0.53207636 0.61892682 16
-0.63053513 -4.0371323 0.51603299 31
-1.5301881 -4.4480095 0.60582852 8.666667
4.3860531 4.6314497 0.67012572 79
-2.9047494 1.3954978 0.7151233 39
3.4308808 -2.4105818 0.75744033 56.866665
-2.5145116 -4.8218307 0.71472162 122.5
4.1024876 4.4810581 0.80056727 70
3.8542845 4.3377819 0.75820291 86
1.9737375 3.3344619 0.8177405 87
-1.6026053 0.88405168 0.90686142 1
-3.2713971 1.2728581 0.89728755 30
-4.6232524 0.0092678666 1.0356343 38
4.5023217 4.68332 0.91938561 1
4.1134119 4.4938946 1.0006713 78
3.9904082 4.4240618 0.98578835 57
3.5266008 4.1654806 0.9337061 51
-2.9661832 1.3671398 1.0301735 20
-3.9394178 0.91657913 1.1835585 6
-4.0216942 0.80085802 1.1119319 10
-4.2286463 0.79301441 1.2239834 5
-4.8928342 0.40093958 1.1916401 36
-2.4529877 -5.0102949 1.2034403 27
-4.7739377 0.50027919 1.3011694 14
-5.0460887 0.33693123 1.3409977 42
1.2688282 -3.4959104 1.3172328 12
2.9837074 3.841603 1.3507318 88
-4.9657531 0.36493218 1.5689207 26
-3.7807426 -2.2573104 1.6399841 137.5
-2.2242379 -4.8869185 1.6357007 33
-5.021687 0.23556697 1.8263297 93
4.1050134 4.7562819 1.8442692 32
1.443187 3.4554856 1.9052193 30
1.267868 3.2805417 1.8682967 28
-2.8933716 1.4083846 1.9451597 30
-2.984015 1.3859689 1.8612909 3
2.1493297 -3.1557968 1.9919798 29
-4.9581037 0.31977451 2.0456121 70
1.3401055 -3.5925601 1.9866136 15
1.712085 3.7353523 1.9758065 58
2.677799 2.1433244 2.0876236 52.375
1.2272465 2.8866839 2.0997884 51
0.29474878 2.0300345 2.1219907 7.6666665
0.089945078 1.9406197 2.1011384 54
-0.75857306 1.1968527 2.088464 45.333332
-2.8677063 1.4708712 2.0260623 26
-2.6895566 1.2558208 2.1329787 39
-0.27132487 -0.15966958 2.1151059 57
-2.7960711 0.89556253 2.1405461 40
-3.389833 0.94153059 2.1343801 30
-1.4032359 -0.28842086 2.1153765 42.5
-1.2550025 -0.47778234 2.113678 55
-0.22735238 -1.3052685 2.1131928 52
-2.3602881 -0.21162176 2.1341374 36
-4.3109417 0.20665514 2.1507583 26
2.1551423 -3.2096279 2.0757077 40
-1.2044678 -1.487039 2.1194494 45.5
-4.3541551 0.022029459 2.1512618 29
-4.3777099 -0.16460854 2.1486115 36
-4.8340974 0.16875541 2.1656287 35
0.44488502 -2.7274399 2.096457 48.5
-1.4346504 -2.0484319 2.1224957 45
-3.5618138 -0.99822038 2.1448338 33
-4.5213981 -0.51200509 2.1543403 34
-2.8589816 -1.6369214 2.1498535 40
-2.8167319 -2.0821791 2.1647477 3
-2.8541508 -1.9372898 2.1670504 1
-0.21335125 -3.5902178 2.1204638 55.5
-1.2683654 -3.0281889 2.1234474 48.333332
-2.742744 -2.3714409 2.1651449 3
-3.4452796 -1.9219129 2.148288 33
-1.5792284 -2.9674478 2.1247954 46
-1.9206438 -3.0363798 2.1459265 42
-2.5430002 -2.853651 2.1510983 43.5
-1.253376 0.63487864 -0.58581257 0
-3.6743603 -0.83471918 -0.5638755 0
-3.9538093 -1.0103276 -0.58495837 0
-1.0600042 -2.7552266 -0.56574816 0
-1.3989606 -2.7394795 -0.56593454 0
-1.4189796 -2.8843014 -0.56875753 0
-2.4223919 -2.947134 -0.56291616 0
-0.83236504 -4.058383 -0.55879653 1
-2.3631573 -3.0885057 -0.56049412 0
-2.5549736 -3.3234363 -0.58154178 2
-2.3305655 -4.0916462 -0.5839467 1
-2.1293244 -4.5312343 -0.58167869 1
-2.5374837 -4.5632944 -0.5215711 42
-0.31240487 1.6248255 -0.58388913 1
-1.2373619 0.75831616 -0.4929691 1
-2.1454968 1.1439228 -0.47183159 9
-1.2361145 0.49926448 -0.5800938 0
-1.4656157 0.51554251 -0.44523185 0
-1.3196464 0.10415184 -0.46386409 4.3333335
-2.9485869 -0.059764564 -0.51404834 0
-4.1726484 0.72421229 -0.43290192 16
-1.0979366 -1.6547875 -0.52958745 1
-4.4324341 0.040400445 -0.45814773 26
-4.7210321 -0.294231 -0.40293458 11.5
-0.63670969 -2.8111539 -0.34870619 48
-1.2056603 -3.3170903 -0.37030807 21
-2.6690326 -3.3491786 -0.50514716 39
-3.1276979 -3.0331926 -0.34636635 30.333334
-1.1121168 -4.3058696 -0.34382454 1
-2.1520905 -4.8670855 -0.36078364 13
4.8250365 4.8638601 -0.32780045 78
-0.019685507 2.3396375 -0.35891479 97
-2.0062461 1.1323655 -0.31987858 17
-3.7949648 0.080488682 -0.19133338 16
1.5037191 -3.4449441 -0.26907876 7
1.4708741 -3.4688802 -0.19193502 9
-3.1369267 -2.8428156 -0.24538553 75
-3.251833 -2.7695787 -0.16418144 85
-0.94929123 -4.2181234 -0.27547413 4
-0.94911814 -4.211421 -0.21155192 3
-1.0623283 -4.2822838 -0.27507773 3
-3.103477 -3.3965654 -0.11450876 32
-3.0563021 -3.6625597 -0.16977358 43.5
-2.338141 -4.3751006 -0.2373786 55.5
-2.3345213 -4.9719019 -0.25234473 19.666666
4.9034519 4.8836575 -0.23041674 20
4.7353978 4.8149996 -0.19970857 77.25
4.3596926 4.6374407 -0.21940339 22.916666
0.1346271 2.4905155 -0.098410636 76.599998
3.6993418 -0.72819471 -0.012642124 0
3.7128735 -0.87151653 -0.010472022 0
4.7976131 -1.7134409 -0.11639164 1
3.7273362 -0.99089915 -0.014100453 0
-1.101881 1.4443564 0.00081022549 44
3.5267551 -2.4187689 -0.070386395 12.263158
-2.5784988 0.79301643 -0.13803156 42.666668
-3.32868 1.1848655 -0.025202651 29.5
-1.6156359 -0.53478193 0.020724386 1
-3.045166 0.12983537 -0.029177938 18.5
-4.3531823 0.66913104 0.020588173 2
1.898096 -3.0019977 -0.048662454 10
-4.2792854 -0.90451348 0.045652356 18
-1.2164955 -2.6619897 -0.11302029 13.5
0.78890491 -3.7964749 -0.13580115 22
-0.69591999 -4.0816202 0.071464628 16
-2.6169963 -3.9197772 -0.10263483 29
4.874218 4.8730526 -0.060965776 14.5
4.7400141 4.8224201 -0.058866367 69
4.1315036 4.527463 -0.053219363 15.5
0.53973031 2.6778526 0.13914186 75
3.6830654 -0.71339536 0.043059945 0
3.7044578 -0.87996012 0.035572778 0.00618238
3.7135665 -0.98835498 0.045728277 0
3.6392107 -0.94503856 -0.0066101216 0.034158245
-0.81135082 0.84921312 0.12945887 18
-3.0386729 1.275234 0.08148402 27
2.8963692 -2.7213445 0.085834816 42.842106
-1.6779394 -0.59007752 0.1095673 10.25
-0.96372128 -2.9847729 0.067720294 150
-0.98908043 -4.2384548 0.20228398 3
-1.5867505 -4.5027714 0.14526188 2
-2.5903306 -3.8814681 0.094648272 33
3.2030406 4.025425 0.2677604 39
1.1856942 2.9681172 0.32140592 71
-2.0281839 1.135638 0.2574195 34
-2.6005597 1.3295448 0.35288593 38
-2.9915824 1.3248751 0.30143386 29
-3.1778793 1.019039 0.36433676 30
-2.912158 0.66204548 0.29587024 28
-2.9871912 0.16290092 0.32443741 25
-3.4651818 -1.6272488 0.31541604 90
3.5906391 4.211853 0.5197857 22
-3.288075 1.1875002 0.54304272 24
-4.1211662 -0.5413506 0.48633853 60
-3.5290318 -2.1627574 0.63145834 47
-1.116106 -4.2422552 0.56256413 3
-3.2543697 -3.3738599 0.65872425 123
-2.9387431 1.4178305 0.77679962 39
3.0071702 -2.6152844 0.76428992 66
2.7429585 -2.7613249 0.8196823 48
-4.7874346 -0.10506052 0.71333283 18
-3.1815133 1.2782567 0.92393428 29
1.9356836 -3.14621 0.84822035 49
-3.9096437 -0.28023744 0.89044636 24.5
-3.6908216 -1.1294453 0.99040204 29.666666
-3.5471864 -1.5769677 0.97795755 81
-0.94479036 -4.1325121 0.96361977 42
-3.3750196 -3.0916624 1.0321702 124.66666
-3.0272527 -3.8302932 1.0740986 114
0.55715656 2.6264782 1.0462595 85
-1.5988274 0.87325537 1.2034425 0
-4.5846462 0.60295928 1.1758655 29
-4.8749466 0.45646632 1.2154934 30
0.93873501 -3.6717117 1.0767795 12
-3.5343637 -1.6126738 1.163383 83
-3.2954488 -3.2949319 1.2766596 135.5
4.3806558 4.5932589 1.207966 10
4.2549739 4.5443182 1.230009 59.42857
-2.8554597 1.4339337 1.27696 29
3.7507625 -2.2111599 1.3009531 43.561646
1.3893144 -3.4168406 1.4139851 10
-4.3403244 -1.161081 1.3790789 91
0.072846889 -3.7420256 1.3982413 0
-0.84858036 -4.1014471 1.2924144 6
0.44839311 2.5250485 1.3883859 73
3.7590604 -2.1915805 1.4323176 44.142857
-4.9688272 0.35398924 1.4963188 16.5
-1.039608 -4.2014236 1.486552 6
-0.8126049 0.8779999 1.7834942 1
-2.871717 1.4599438 1.6908518 29
2.6212897 -2.7539487 1.6924789 11.470589
1.8617233 -3.1647048 1.7603693 6
-2.0675144 -4.7181525 1.7809503 28
2.7671669 3.8345878 1.7966813 216
2.6772728 3.7553585 1.7725726 197
-0.0023293495 2.8982916 1.9704132 59
2.4704628 -2.8988252 1.9042931 150
2.2778819 -3.1138036 2.0310144 34
-2.3739061 -4.9182892 1.9992578 59.5
4.1854048 4.984621 1.9461653 34
2.2379227 3.4742458 2.0814598 57.5
1.1749275 3.4376261 2.1034763 63
0.87105083 1.7652919 2.0957725 63
0.97027564 0.57248664 2.0968478 61.5
-0.47865963 1.0669246 2.086978 58
-1.4281578 1.5651476 2.0965946 38
0.76686382 -0.25288498 2.0963912 66.166664
-1.7353797 0.82018459 2.101625 10
-2.4982352 1.212115 2.1215422 35
1.6504531 -1.5748696 2.0954518 58.450001
1.0993664 -1.7556 2.0930235 50.299999
-0.92240191 -0.95114511 2.1313095 18.75
-3.1169538 -0.24324363 2.1216609 30
0.71755886 -2.4726839 2.1038647 56.18182
-1.9643869 -1.1202614 2.1119564 41
-3.363512 -0.37213618 2.1336479 32
-4.4456253 0.15889084 2.139997 32
1.2805338 -3.0505731 2.0980771 60
-4.458005 -0.036970437 2.1388104 26
-4.1154523 -0.69913751 2.1428871 36
-3.349627 -1.2616585 2.1304662 32
-0.97031498 -2.7258949 2.1157281 55.5
-3.6797619 -1.8300591 2.1435997 34
-3.005302 -2.9199986 2.1436112 45
-1.209492 0.38824439 -0.58464843 0
-3.0562041 -0.31978691 -0.57232028 0
-1.5191538 -1.5510764 -0.56982082 0
-3.3560998 -0.9610824 -0.57306921 0
-3.2664278 -1.6126781 -0.56773055 0
-1.5255711 -2.7302718 -0.56297261 0
-1.496485 -2.8582592 -0.56045395 0
-0.85935283 -4.1490417 -0.56172836 1
-2.6622164 -3.2251992 -0.54974496 8.666667
-1.3465607 -4.3279452 -0.55810308 0
-2.0029323 1.1240748 -0.47281745 14
-1.4609244 0.2638191 -0.42688018 6.6666665
-3.0721748 -3.0139551 -0.32874998 28
-2.9509871 -3.3286457 -0.31653196 30
-1.3282797 -4.4376287 -0.44736904 13.333333
-2.5604517 -4.263248 -0.45934325 36
4.6181607 4.7672925 -0.37024707 28.6
2.5877848 3.7481861 -0.39073718 72.625
0.0041573048 2.4031682 -0.35015592 78.125
-0.72731853 1.1311597 -0.39019218 13
-1.0600336 1.4588808 -0.30586413 24.5
-2.3394773 1.0002491 -0.26799095 52
-3.9296124 0.026325047 -0.27906036 33.5
1.5219817 -3.4489212 -0.21091652 8
1.3913229 -3.273458 -0.20905079 7
0.95690656 -3.4975333 -0.25918123 32
-0.35682964 -3.9754348 -0.17966494 20.333334
-1.0001934 -4.2397103 -0.13185164 4
-2.6463797 -3.4135675 -0.22047226 27
-2.5072992 -4.0383272 -0.26454407 63.5
-2.2139413 -4.906559 -0.15771802 13
4.8775249 4.886436 -0.18649535 36.166668
4.4641757 4.6950912 -0.16495803 31
4.1293249 4.5304608 -0.17440034 9.545455
3.6648021 -0.79653764 -0.016405582 0
-2.0277317 1.1236125 -0.0074241096 35
-2.9925287 0.18100607 -0.1294881 13
1.4253588 -3.478826 -0.06961152 15.666667
-2.9146068 -1.2774262 0.05400306 29.5
-2.9845254 -1.5063388 0.042986143 1
-0.76084113 -2.8568568 -0.068006344 33.5
-4.451313 -0.90914446 -0.067252606 29.5
3.0708368 3.9786167 -0.012863849 56.333332
-0.84416318 1.8320905 0.014163314 88
3.6455092 -0.80794668 0.063989304 0.02910053
-4.1504574 -0.72503984 0.095036358 41
-4.1276293 -0.55171913 0.10333441 36
1.0552073 -3.6300497 0.22164562 15.5
-0.95095992 -2.9375353 0.25021115 79
-0.26335502 -3.9329014 0.25620896 15
-2.6903718 -4.3964472 0.10606223 122
-2.7692406 -4.2536278 0.10985314 121
-0.41502786 2.0404983 0.34181485 93
-2.4083865 1.2826699 0.38438842 39
-2.6758749 1.093244 0.23483089 12
-2.9928916 -1.4140878 0.37985352 37
-3.5304139 -1.5335605 0.34814781 61
-1.045645 -3.0542798 0.29287109 3
-0.77482486 -4.0527477 0.32326424 6
-1.520241 -4.4713578 0.36300185 4.5
-1.6389668 -4.4762354 0.37731275 2
4.6393809 4.7433228 0.3824302 36.375
-2.7963707 1.3705016 0.57523543 9
-2.8255842 1.472633 0.51707065 19
-3.0108478 1.3207389 0.55667418 16.5
-3.227226 1.0077482 0.58789194 20
-4.7636642 -0.098234594 0.65266281 27
1.4142621 -3.4357743 0.52372175 13
-3.0086758 -1.226783 0.50438708 22
-3.3991997 -1.419367 0.51420093 42
-3.1775939 -2.1404309 0.54716045 72
-1.1555989 -4.2600508 0.50323272 4
4.6733212 4.7716584 0.55797166 1
4.5270019 4.715889 0.6088044 41
4.1146603 4.5073614 0.63457692 73
3.9854214 4.4414434 0.62285876 54
3.7380664 4.3049664 0.60137331 23
3.5140603 4.1847215 0.64793205 59
1.0514586 2.8874941 0.60054749 85
-4.8360319 0.069100261 0.81308031 35
-0.80222631 -4.0665121 0.73185831 12
-1.5382664 -4.4135551 0.84349966 5
4.2559624 4.5740337 0.77519405 76
4.1262608 4.5072284 0.76349342 77
3.3291993 -2.4483976 0.90795332 49.5
-4.8015823 -0.0080590248 0.90284383 25
1.2179458 2.928947 1.0668507 86.125
-2.852093 1.4806408 1.1954199 28
-0.86670232 -4.0434022 1.1703224 31
-2.6823647 -4.4115634 1.2705147 124
3.370826 4.073597 1.2076606 33.5
-0.36736417 2.0793176 1.1990018 102
-1.5831072 0.83351314 1.2334112 1
-2.8523123 1.4662274 1.3746767 28
-4.9782715 0.30099511 1.4254318 27
0.24057007 -3.6658483 1.3904687 0
-3.6189306 -2.5905495 1.3663915 126.66666
-2.9032986 1.4118282 1.558533 31
-0.49839759 2.1341181 1.7687449 19
-2.9144094 1.4359471 1.7438567 30
-4.9827366 0.13268626 1.7766368 87.666664
-1.7490938 -4.5607719 1.7040292 25
3.6587698 4.2115183 1.7198378 14
3.403502 4.2171998 1.7734325 25
1.8840325 3.7201824 1.9223845 115
0.16024923 2.3862767 1.7782938 19
2.7000713 -2.7987084 1.9226393 152.5
-4.9569187 0.34945905 1.988675 32
-0.97773004 -4.1847868 1.9357024 22
3.925952 4.8494058 1.9410368 32
1.8268753 3.7437353 2.0901914 68
1.9451385 0.73995018 2.0969529 49.75
0.42677021 1.587535 2.0949688 51
1.4513485 -0.11433512 2.1147332 8.833333
-0.33600974 0.33749235 2.0897059 48
-2.8416817 1.3828868 2.1239583 32
-1.4471548 0.1660862 2.1207359 46
2.0013647 -1.8731338 2.089798 75
1.2585166 -1.365847 2.0933237 50.888889
-1.9151723 -0.39635861 2.125119 40
1.0369589 -2.200527 2.0959108 51.200001
-0.42721009 -1.6054192 2.1125596 49.5
2.0856934 -3.1782193 2.1021597 69.166664
-4.7250195 0.35385489 2.1712456 21
-2.5755799 -0.98365241 2.1278605 40
-4.7042646 0.16458583 2.1647208 39
1.4755285 -3.1999426 2.0901592 44
-0.36576486 -2.3257596 2.109061 48.142857
-1.8737161 -1.4482161 2.1311557 39
-4.7431192 -0.013589561 2.1726632 38
1.2198558 -3.6014981 2.1065426 58
-0.35586309 -2.7766271 2.1082306 58
-2.2439873 -1.9985019 2.1353469 40
-1.0355766 -2.9590926 2.1279175 59
-4.3570366 -1.1039582 2.082129 129
-1.2953932 -3.2589588 2.1323941 46
-2.7268355 -2.6130953 2.1356254 41
-2.6439083 -2.9080634 2.1349583 42
-2.0228961 -3.7975807 2.1401439 40
-2.6977985 -3.3159814 2.140826 39
-1.7989128 0.85770911 -0.58737284 0
-1.9281795 0.46641761 -0.58471483 0
-4.1079912 -0.73099059 -0.54344136 2
-0.93378568 -3.5151088 -0.56142223 0
-2.4054382 -3.4123459 -0.56423122 0.66666669
-2.6083305 -3.1691804 -0.57837355 0
-2.2264993 -3.7394314 -0.54770035 0
-1.4651039 -4.4587779 -0.51903105 12
-1.8318698 -4.5257096 -0.5492515 0
-0.44444871 1.5464392 -0.58902222 1
-0.42540884 1.3375807 -0.57639742 0
-1.997401 1.139133 -0.41502881 11
-2.3887098 1.1545613 -0.40909287 22
-2.465224 0.79666692 -0.51880831 12.666667
-2.6447628 0.73304516 -0.45269644 37
-3.7874429 0.048078477 -0.42683366 22
-0.61506581 -2.0414126 -0.39216956 0
-3.8364365 -0.99091965 -0.43077293 0.5
-4.5251074 -0.6548295 -0.4820382 0
-1.2941654 -2.582639 -0.40816888 5.5
-0.4267199 -3.9941609 -0.33325446 23
-1.4251516 -4.4395785 -0.44669408 14.5
-1.6956232 -4.5890193 -0.38829499 1.5
-2.7296855 -4.0924363 -0.34154639 75.5
4.9839516 4.9304085 -0.45619592 23
4.8828712 4.8972964 -0.32264236 78
-2.0801275 1.1271973 -0.20393486 22
-3.7660387 0.77588862 -0.24434832 4
1.3281906 -3.3606851 -0.24237178 7.5
-0.67786098 -2.8301315 -0.25097314 30.5
0.014252901 -3.9046071 -0.19359604 55.5
-0.87163663 -4.1782498 -0.31004962 10
3.2301409 4.065999 -0.19578367 52.18182
3.6275353 -0.7282449 -0.017151594 0
3.6496196 -1.0073159 -0.011695353 0
-2.019439 1.130729 -0.076590881 36.5
1.6229779 -3.3574121 -0.064489141 39
-4.7171021 -0.36990839 0.053287435 25
0.58905792 -3.4515712 -0.020258229 26
-2.9615085 -1.3799371 0.028345376 36
-3.7274606 -0.93513751 0.039445773 3
-3.8207123 -1.7732787 0.027758222 12
-0.52221322 -4.0073624 -0.010978375 47
-3.1065934 -2.9699826 -0.0019690357 98.333336
-1.7306626 -4.6049089 -0.033113744 1
4.8637438 4.8689294 0.0015307479 11.5
4.7128019 4.8133163 -0.00062011555 71
4.3485126 4.6435103 -0.0062196963 42.75
3.3668911 4.1270967 -0.044107389 24
-0.17234135 2.1540587 -0.00045738928 97
3.6051414 -0.72596133 0.05017988 0
3.6283131 -0.89625233 0.030495379 0.0015527951
3.6328597 -1.0018601 0.047041163 0
3.5601199 -0.95750242 -0.0084201954 0.040513165
-2.0676835 1.1292708 0.13199568 34
-1.759536 -0.19616365 0.23267487 1
-2.9338787 0.2471419 0.045065772 0
-1.7849243 -0.65732342 0.070633128 0.5
-4.0273581 -0.7093271 0.10858741 33
-3.7927535 -1.0579587 0.095812246 38
-3.080807 -1.510443 0.074384704 27
-3.2209694 -2.0711508 0.10245469 65
-3.2156408 -3.1135237 0.102487 31
2.7388577 3.7833624 0.1602426 88
2.4322405 3.633883 0.24308699 92.888885
-0.17135596 2.1462009 0.35623428 98
-2.8931353 1.2168813 0.31660047 37
1.5982859 -3.3696742 0.2650266 31
-3.3504908 -3.1469038 0.34743172 70
-2.8135521 1.4107537 0.4906843 28
-1.1000197 -4.2930808 0.53614789 7
-2.1993244 -4.8781333 0.6527254 32
4.1534672 4.5120926 0.57652825 67
-2.8792126 1.4373782 0.67456901 27
1.2514155 -3.5243049 0.72724664 16.666666
-3.3734515 -2.1464915 0.74325973 38
-2.4955785 -4.89432 0.73610312 128
3.108135 3.9527793 0.76320529 68.400002
-0.19977808 2.1422369 0.95575005 109
0.84371996 -3.7300611 0.87204963 17
-3.3712451 -1.8853288 0.94526082 89.5
-1.4835904 -4.4120049 1.0519549 9
0.20030665 2.4323001 1.1336415 57
-4.1570158 -0.6727469 1.2497724 42
-0.98613238 -4.2200351 1.2451454 6
2.3759828 -2.9235306 1.2603163 29.428572
-4.9567318 0.36487812 1.3832507 38
0.32588863 -3.6285729 1.3462877 0
-1.2344496 -4.3652 1.3147552 7
-1.546818 -4.4941373 1.3368109 3
-1.9158728 -4.6024208 1.4512126 15
3.3631842 4.0544643 1.4275092 34.700001
2.1238177 3.373435 1.3786224 84.571426
-0.86145282 1.919642 1.4975762 72.333336
-0.72492242 1.1479106 1.4248753 12
-0.93069005 0.82056528 1.5715176 12
2.2129872 -2.9651639 1.6184152 9
-5.0264454 0.21978074 1.6330171 12
-0.83362603 -4.1211753 1.5952889 20
-2.7217276 -4.3426948 1.5792685 126.5
-2.2197044 -4.8646894 1.5560024 50
-2.9246075 1.3763671 1.7291579 28
2.7952099 -2.6659899 1.698055 14.956522
1.6308377 -3.2951381 1.658049 6.5
-4.9719868 0.30171007 1.8033789 25
4.1481743 4.4927416 1.7261549 54
2.2542205 3.8327007 1.9121777 26
2.0339222 3.7343011 1.8888338 105
-1.5663331 1.9160054 1.8915273 32
-2.8767917 1.4099755 1.8552313 30
1.9156504 -3.2336111 1.936277 10
-4.9810019 0.32341605 1.9162115 44.5
1.2356901 -3.6416655 1.9539959 15
-0.18772435 -4.6547594 1.9525084 95.5
-1.8522956 -4.6275244 2.0870497 28
3.2227106 3.6530027 2.0840657 53.444443
2.4383569 4.1094089 2.0115149 64
2.7134447 1.9902618 2.0855148 59.75
1.287441 2.6679978 2.107208 55
0.85057402 2.6870356 2.0940721 44.25
0.69644594 2.7586884 2.0337195 35
0.27052116 1.1795409 2.0950887 62.666668
-1.4904082 1.9135718 2.1018131 38
-2.0418169 1.0715239 2.1360412 15.666667
0.083425283 -0.98663032 2.0960145 57.666668
-0.241956 -1.4999373 2.1122351 52.75
1.3419087 -2.6456518 2.0934465 58
1.7434689 -3.121747 2.0966308 61
-2.8103664 -0.7717644 2.1310904 33.5
-4.2065535 -0.13360584 2.1542532 25
-1.8080132 -1.580003 2.1239004 41.5
-5.0204182 0.24288434 2.1187718 72
-2.2512915 -1.5167916 2.1325748 39
0.081672907 -3.5057867 2.1134202 51.5
-2.5736325 -2.3942413 2.1365149 22
-2.6891334 -2.1996317 2.157613 2.5
-2.1945007 -3.4690363 2.1470308 42
-2.9829614 -3.0770273 2.1490805 45
-3.2091849 -0.037016988 -0.56773078 0
-1.8040588 -1.6160984 -0.57209039 0
-4.2952232 -0.63364708 -0.57423997 0
-1.2843158 -2.5394516 -0.56833386 0
-1.2424905 -2.8515217 -0.5642544 0
-1.1520007 -3.357538 -0.55838662 0.5
-1.1223533 -3.5571065 -0.55831009 0
-1.0162761 -4.102438 -0.55554169 1
-0.98269153 -4.2414818 -0.55488718 5
-1.1008079 -4.314209 -0.5175339 3
-1.9953592 -4.7390232 -0.5576337 2
-0.47647643 1.984659 -0.44922176 73
-0.5647347 1.7867794 -0.53300989 43
-0.84215283 0.8266595 -0.46922258 15.8
-1.3625424 0.66783148 -0.49685687 0.2
-1.2651489 0.3384735 -0.54834718 1
-2.8178298 0.68906826 -0.4835164 1
-1.9588377 -0.34906435 -0.45211157 6
-3.672272 0.19997174 -0.53712291 42
-0.69356894 -1.9141724 -0.37979618 0
-3.0309026 -1.4641206 -0.47991398 0
-4.6302443 -0.48615694 -0.44969937 1
-3.0495422 -2.9726088 -0.37076464 5
-1.2620132 -4.3951478 -0.44208118 12.5
-2.5093658 -4.0635262 -0.32878536 63
-2.2586458 -4.5446229 -0.4200519 46.5
-2.6066654 -4.3312068 -0.46787679 53
-2.6620939 -4.3260407 -0.32730821 65.5
0.52048397 2.6917639 -0.23288774 84
-2.4291666 1.2447364 -0.336779 20
2.0800495 -2.9157953 -0.19639176 45
-0.73953271 -1.816103 -0.29069504 0
-0.67235398 -2.7829242 -0.29238105 7
-1.2513416 -2.5358353 -0.29316691 16.5
-1.1559851 -3.2695668 -0.20702097 1
-1.5411069 -4.4907908 -0.16007245 4
4.926075 4.9155498 -0.28817907 80
4.2318249 4.5813699 -0.14172326 36
3.5715983 -0.81509066 -0.01243163 0
-2.0082295 1.1600139 -0.11706865 21.5
-2.6299675 1.284236 -0.023076963 36
-4.2502699 0.64981478 -0.012215027 10
-2.7859623 -0.4382298 0.0016524522 5
-3.1908038 -0.075348318 -0.0032128962 3
-3.7180536 -0.93183237 -0.057044581 1
-4.6429071 -0.55758369 -0.046408705 81
-3.8887608 -1.7870135 0.037265047 13
3.5607598 -0.82994199 0.065464228 0.020151133
-2.0128062 1.1484208 0.085207343 25
-2.8802078 1.3159044 0.039205369 30
-3.3871286 1.2068834 0.087322354 30
-1.7761462 0.011939704 0.19283868 10.666667
1.5688567 -3.3968983 0.075241119 23.666666
0.52578521 -3.4291189 0.086069368 10
-1.0297816 -2.998163 0.15976667 109
-3.5311587 -2.2392695 0.15097424 32
-1.7391036 -4.5976534 0.14622328 1
-2.6964915 -0.32207716 0.37709799 5
1.6183702 -3.3047392 0.34844109 28
-3.5000956 -2.1727886 0.32972121 38
4.5042701 4.7011628 0.38422009 70
-1.0355136 1.6383677 0.50056708 109
3.2570086 -2.5159905 0.48423648 37.971428
-2.9622424 0.75964934 0.45629886 52
-3.9709284 -0.2287156 0.56867248 1
-3.5089796 -1.2182014 0.53400803 49
-0.28854132 -4.1344357 0.66634822 32
-3.5234272 -2.8459878 0.54781765 130
-1.7002451 -4.5260696 0.6704098 1
1.3483565 3.0294788 0.62276953 74.666664
-2.8206241 1.4463763 0.76386791 29
-4.1761618 0.82152861 0.72069257 2
2.2017751 -3.04023 0.70134681 31.428572
-4.7714348 -0.076723278 0.76723701 24
-0.80798125 -4.1263261 0.70489717 13
-1.2865255 -4.400537 0.7290982 13
4.3912535 4.628263 0.82713604 43
3.7191746 4.2750835 0.80257767 19
-2.8405912 1.4318955 0.91633922 39
-4.4114323 -0.0042946935 0.92030871 12
-2.8628352 1.4212179 1.1382998 40
-3.7438295 0.99600619 1.1335684 15
-4.2652845 0.74955255 1.1768388 26
-4.53057 0.61577505 1.2156819 31
-0.12302446 -3.971935 1.2673568 44
-0.11522698 -3.9877403 1.2314913 16.5
-1.6248276 -4.4758501 1.1239886 2
0.30071592 2.4796197 1.2914509 66.571426
-0.96898198 0.75887102 1.3248552 3
-4.7023001 0.47802073 1.268568 26
-4.9580736 0.33507127 1.3351153 35.333332
-4.5363293 -0.42164057 1.3058419 55
-0.177315 -3.9964657 1.2953123 46
4.1821647 4.5010715 1.3199012 73
-2.8272293 1.4760294 1.5357293 29
4.2651629 4.9763274 1.8967577 22
3.0737028 4.3157105 1.9133325 94
2.1330092 3.35536 1.7534811 17
1.6221004 -3.4174464 1.9539962 11
-2.5239952 -4.7679138 1.9549257 120
4.1455884 4.9861035 2.0299556 44
